1870
357.42  933.404  24.6936
611.049  815.088  468.641
287.293  50.1441  785.388
384.238  679.367  554.581
146.77  840.319  428.309
606.893  922.827  81.0644
249.418  788.24  26.6633
144.648  951.7  28.0543
126.234  429.805  452.286
116.303  235.987  862.249
386.94  257.028  822.393
459.589  846.602  73.282
138.16  60.1247  685.399
194.588  15.8014  884.537
176.063  241.852  662.408
133.837  475.193  924.641
149.053  381.148  849.95
585.664  852.9  570.928
676.122  243.985  344.793
73.2371  68.8881  855.562
419.375  116.321  939.153
593.738  911.435  527.255
20.4483  14.1791  723.438
74.8539  416.082  720.33
92.5603  132.223  490.184
18.7234  162.797  941.621
609.458  558.144  517.471
261.416  162.876  669.907
216.087  911.758  505.84
214.313  62.4892  839.498
723.775  513.878  356.558
294.918  211.305  65.2812
186.54  318.151  516.703
205.367  49.0929  804.47
691.563  661.571  468.917
53.9772  46.8707  934.428
494.565  547.841  70.8715
192.638  404.052  817.019
192.863  974.277  334.84
87.1754  357.138  267.921
101.228  27.2187  42.2118
622.577  481.861  91.0182
638.965  182.587  103.759
430.261  941.755  600.826
75.0299  534.045  141.271
15.0521  28.3985  905.648
226.536  26.9684  525.273
553.101  342.849  74.8748
30.0183  384.215  593.034
242.28  116.076  518.077
134.049  351.238  501.642
157.65  27.0501  531.037
134.069  263.3  580.767
150.913  505.563  364.861
713.087  551.307  397.635
552.302  605.294  104.228
578.856  682.479  561.475
67.9537  960.303  732.507
370.655  461.955  80.3415
589.955  971.827  127.126
595.494  660.872  66.5321
188.084  16.5466  675.325
723.048  876.598  347.239
356.472  833.639  538.788
242.555  303.945  533.834
352.51  619.304  575.343
126.568  736.4  208.058
655.123  130.159  206.633
311.406  267.367  735.914
24.8671  439.944  434.155
243.986  67.5026  899.389
81.6966  970.404  682.795
18.0193  56.1782  936.34
70.3096  76.6671  83.074
727.062  418.764  353.767
705.482  752.038  428.014
343.291  299.333  691.797
196.838  831.372  336.869
88.7643  270.158  694.147
292.511  110.507  691.973
18.1893  134.791  640.996
713.458  417.892  404.267
267.345  273.985  841.153
318.742  601.162  24.9586
416.663  96.6862  876.259
265.84  39.5119  132.539
718.056  790.804  245.597
270.454  745.73  560.921
76.5415  87.6917  704.691
24.4945  454.451  718.612
588.206  564.581  570.198
699.742  793.037  198.66
23.3231  188.517  541.66
91.4992  16.4791  901.906
82.0289  78.8432  521.533
654.179  746.389  112.033
29.3757  891.937  153.379
71.5026  294.805  303.652
302.417  525.094  609.078
368.945  383.685  580.277
656.074  609.363  416.789
13.4266  83.168  873.847
649.184  917.57  114.686
723.077  658.279  308.832
496.249  422.819  576.233
519.652  889.019  601.645
672.899  776.433  429.464
192.749  794.541  301.571
243.693  134.891  675.921
154.805  346.465  891.295
489.948  281.332  551.698
614.006  650.164  122.953
187.393  51.2479  890.924
196.54  498.851  475.344
539.7  203.018  44.0455
304.273  942.774  566.16
658.229  738.607  177.198
121.527  314.821  743.536
49.6672  550.024  330.702
194.39  91.6405  939.481
122.634  793.24  645.33
489.294  909.013  543.037
209.292  345.933  25.9354
344.09  230.185  939.689
115.125  31.6913  216.797
660.813  465.353  227.856
650.542  715.942  212.633
148.039  764.989  289.191
724.736  323.696  347.313
321.006  688.277  606.35
105.551  19.5273  792.9
46.2218  202.417  939.606
127.097  74.1701  872.691
590.122  619.067  136.975
392.885  822.875  603.394
176.249  12.8388  848.626
198.197  349.151  697.303
412.717  19.0099  647.659
123.865  896.548  301.869
192.602  614.005  926.338
189.816  932.495  696.386
386.412  398.745  612.925
225.143  827.675  606.197
257.639  249.682  940.057
661.745  899.792  503.754
422.241  130.13  675.569
676.923  303.511  283.065
731.46  372.365  322.178
12.986  163.91  895.93
678.023  64.6496  354.704
297.447  145.912  933.681
607.967  577.232  70.7829
637.969  322.009  101.802
206.154  308.852  197.085
669.488  200.301  141.223
22.8167  747.675  336.265
34.0057  407.515  931.767
554.73  672.905  41.2153
71.1599  249.798  729.842
189.633  968.802  756.758
355.618  208.937  686.698
651.238  26.3133  510.126
72.4264  769.5  199.51
144.759  89.4993  909.849
248.275  866.802  537.522
630.271  304.436  166.822
361.213  48.276  854.628
331.854  199.384  616.557
678.211  765.46  268.504
269.729  191.045  889.83
682.492  804.081  468.361
477.346  182.689  28.5252
625.107  387.903  87.6137
422.615  55.911  734.998
561.77  458.25  580.468
290.037  912.402  20.5751
444.905  719.063  22.7458
144.642  484.143  478.542
70.1503  887.465  595.777
345.192  178.02  901.628
407.557  753.359  553.051
233.512  403.05  26.3461
643.115  833.548  471.917
665.573  809.523  231.509
113.929  358.706  435.863
283.441  510.474  564.903
175.471  917.139  581.626
31.2488  519.14  724.559
384.365  57.3076  828.715
85.8736  439.063  27.7828
277.096  287.244  701.566
482.29  645.575  21.8699
39.9956  918.867  928.841
462.002  513.429  548.215
173.636  293.128  600.203
97.0658  47.2681  935.793
331.979  264.489  941.429
242.936  774.194  531.861
399.497  207.032  886.167
146.155  49.5198  799.134
701.305  719.276  200.991
671.265  430.666  491.215
129.314  973.035  415.053
660.731  377.783  501.734
191.003  835.797  731.975
22.8748  808.712  101.726
203.722  661.225  255.178
636.69  971.025  106.158
30.6069  691.505  179.589
569.11  657.9  122.135
245.441  17.6604  634.043
308.851  239.492  587.163
417.949  799.415  552.247
659.114  464.286  459.9
216.286  696.871  566.648
207.502  16.5987  937.46
198.773  390.443  237.697
55.806  248.688  849.398
726.066  127.644  294.337
331.567  106.299  685.656
505.288  734.135  572.3
432.204  822.233  21.1104
301.498  651.295  568.319
299.865  801.57  114.342
605.643  533.335  488.69
68.0612  781.615  100.717
552.139  782.176  52.1099
184.976  142.048  909.854
194.875  423.181  918.598
127.652  681.799  225.405
79.8215  507.99  825.528
29.5276  393.722  102.422
188.81  532.1  655.102
375.334  662.508  609.646
79.1775  798.898  428.791
27.15  814.172  530.462
324.586  471.793  26.9927
608.407  779.275  556.359
115.32  279.714  855.645
313.688  120.117  650.064
245.38  835.197  166.983
702.736  501.056  180.762
665.969  678.674  131.829
70.9385  105.529  575.457
67.4609  975.319  325.18
28.3023  333.063  249.857
723.932  210.639  356.586
420.821  427.046  77.2176
532.733  622.219  61.8602
342.855  282.339  78.3604
59.8391  477.285  383.534
421.551  375.401  602.248
560.541  585.752  54.1114
135.054  216.482  332.887
122.367  453.777  296.198
237.819  785.568  459.437
725.027  972.391  279.325
414.502  236.925  619.957
396.846  427.038  584.399
125.194  866.579  657.247
556.869  882.461  586.319
671.721  274.409  380.71
270.077  80.8697  870.232
104.329  419.214  398.404
27.2254  496.097  600.94
647.89  364.846  117.267
26.3592  869.264  565.174
599.477  687.817  520.24
675.92  573.158  358.115
453.05  307.99  558.848
268.407  77.5391  552.174
86.1423  677.482  369.887
331.79  321.809  609.421
347.286  237.036  619.516
715.441  724.178  396.404
241.844  292.402  478.807
97.4879  15.3082  695.421
640.249  238.145  108.107
118.483  241.263  720.908
33.0858  194.582  891.875
470.496  438.464  608.896
373.741  162.893  901.234
137.699  728.073  655.176
701.966  448.074  191.771
188.195  828.685  382.172
206.508  869.135  244.469
20.3923  948.48  431.123
34.234  41.5333  712.377
635.656  80.8527  452.334
637.265  434.366  448.873
246.312  266.309  668.891
517.724  153.79  593.594
55.3658  18.8736  751.251
68.8756  846.932  490.969
658.356  399.43  470.996
73.723  646.008  238.514
519.989  565.08  36.0957
178.761  216.873  562.528
313.433  944.549  51.2506
511.222  383.423  84.3179
683.195  590.336  479.932
661.736  281.124  127.913
553.162  644.65  549.225
62.3069  15.6733  711.268
263.927  230.105  596.284
424.042  269.929  763.877
419.639  298.022  830.432
559.823  531.944  112.631
91.8056  604.644  510.518
282.67  182.14  635.804
335.411  270.663  865.044
413.127  468.69  62.646
182.836  270.345  328.592
136.723  268.256  819.03
366.69  791.315  539.73
418.282  255.793  938.513
293.684  183.051  913.694
34.5035  487.016  777.644
29.3372  966.223  36.487
725.843  854.587  305.341
24.1857  720.731  229.877
525.273  529.472  564.824
112.993  680.055  159.203
639.943  181.111  450.202
154.465  291.492  912.668
191.608  477.379  568.288
655.137  546.74  212.056
483.256  236.038  28.1213
385.73  591.106  21.7735
669.275  365.358  434.517
375.252  468.174  23.6708
191.116  717.517  628.86
246.604  198.456  633.129
716.122  308.817  233.188
103.351  18.4825  836.762
602.809  652.834  558.518
643.667  496.285  484.867
88.1616  759.431  682.977
260.995  576.696  482.073
236.992  248.063  82.7163
512.736  344.046  600.857
597.722  419.346  73.3544
303.463  883.006  609.844
170.242  762.915  133.466
358.35  127.318  545.524
488.439  980.712  76.5325
626.008  451.438  159.27
299.858  142.552  611.815
88.1661  431.619  923.376
185.166  120.047  651.056
272.603  532.808  132.389
324.317  46.1446  799.535
200.797  926.023  230.01
46.8943  62.758  844.482
240.405  91.7053  164.084
401.375  715.797  555.062
72.8259  544.787  485.603
129.84  916.959  693.719
72.4399  311.682  389.191
32.8397  34.7491  450.94
30.8033  582.566  27.3287
34.0282  422.388  768.966
397.733  598.997  551.628
79.8054  112.483  372.267
196.563  328.025  645.145
246.34  552.876  597.382
437.441  662.578  21.2463
141.074  938.625  269.576
425.043  355.133  566.476
87.5346  484.421  182.942
137.76  509.936  255.33
84.8955  491.758  73.6211
251.929  207.858  942.276
619.358  876.555  81.0286
101.671  607.457  872.529
220.045  16.5792  797.579
138.546  82.5084  509.732
271.945  127.311  900.697
710.109  36.7245  212.805
269.868  742.538  123.412
395.108  299.753  892.48
430.182  475.389  18.6897
584.001  228.563  510.378
488.558  262.517  603.478
345.439  43.218  700.752
193.905  31.9592  370.568
182.056  470.8  154.065
264.235  16.7082  724.734
209.35  614.75  514.118
615.486  273.463  82.2348
311.718  84.4034  869.231
108.984  566.998  354.527
123.295  735.584  333.639
627.086  369.124  461.409
575.828  871.418  509.974
31.7143  736.978  512.462
205.239  318.857  827.862
371.727  256.287  590.694
578.137  795.368  97.1541
45.21  112.695  891.217
301.415  197.534  671.737
633.902  212.76  177.859
28.9438  581.706  728.092
712.109  604.21  231.098
415.058  870.653  73.7648
29.701  422.913  495.565
715.231  934.05  404.061
194.61  668.128  922.555
229.582  103.773  693.934
100.469  115.964  922.294
165.648  584.322  857.621
726.215  377.274  278.862
89.6682  681.795  773.918
199.423  621.096  365.466
725.567  973.092  324.898
725.133  803.281  295.139
140.422  480.689  617.791
469.304  982.227  555.601
196.03  879.353  365.912
672.437  567.854  146.564
274.483  879.496  61.5408
30.6209  687.677  465.084
30.2574  148.602  314.92
29.4851  234.102  311.337
194.481  105.692  531.711
678.123  590.905  270.785
370.451  266.215  778.516
444.536  650.167  72.9683
671.971  21.5447  374.174
334.765  102.187  891.101
34.1703  349.259  692.928
264.347  137.047  936.091
159.625  19.2872  939.046
66.161  409.705  546.809
215.204  800.463  415.768
266.986  78.5005  708.549
607.386  500.072  472.711
384.083  229.708  545.452
441.221  556.195  76.6962
132.804  145.034  327.033
27.2025  228.455  477.544
229.968  101.744  31.9357
275.12  193.76  124.609
29.9812  366.27  166.55
129.808  363.976  814.833
667.828  773.358  141.437
681.612  27.1793  467.161
67.8071  912.639  463.113
320.069  978.787  92.6842
294.912  153.784  681.36
168.226  40.9176  853.716
440.523  898.601  606.474
194.25  406.386  338.322
235.445  691.824  173.173
577.947  423.929  573.891
679.101  729.442  293.953
612.263  67.6561  146.856
725.935  326.763  299.779
185.482  460.406  334.938
53.1944  50.6771  784.198
26.2768  444.549  567.525
355.938  553.708  540.554
448.246  161.37  72.0872
561.098  336.025  582.677
266.061  193.657  682.223
166.354  17.3669  751.725
186.382  977.863  704.781
648.885  696.783  423.977
426.26  675.292  553.064
363.182  909.994  550.658
264.443  975.56  559.614
387.85  98.8297  627.516
129.039  855.949  927.538
595.895  915.681  131.421
64.1879  38.2544  258.012
672.568  215.107  259.511
150.048  425.301  365.161
421.542  299.239  873.456
178.829  32.1857  818.216
619.099  893.605  501.602
192.726  817.555  865.406
214.626  277.656  27.8798
421.772  228.06  913.522
247.983  829.705  115.98
724.903  675.504  269.877
34.1171  612.321  782.656
145.021  256.154  854.003
613.761  824.541  80.7669
30.0483  178.738  112.733
220.429  56.0581  874.918
709.113  281.207  415.879
53.0958  74.7758  908.534
655.11  74.4146  501.745
240.102  220.015  690.434
195.893  928.271  131.433
334.106  62.1413  906.812
280.456  322.05  496.197
117.866  250.301  619.622
640.933  663.132  197.429
541.257  840.872  521.726
535.785  980.049  42.6802
376.1  244.321  672.055
49.6315  199.178  684.703
269.843  977.835  605.389
137.512  616.944  638.921
46.1245  57.2226  20.808
589.027  767.469  134.707
589.804  948.133  567.024
408.335  628.021  47.0071
23.8758  515.363  373.711
726.42  372.515  374.887
505.958  701.397  80.9017
546.65  306.321  102.672
182.232  728.741  405.96
529.758  881.464  90.2798
580.452  316.145  120.525
217.167  482.625  427.344
481.262  755.046  26.79
155.375  423.589  126.634
517.752  954.994  85.5315
92.838  54.3308  780.603
529.409  248.54  586.418
25.4076  577.938  847.191
584.315  518  572.341
28.3394  665.726  821.297
294.978  267.645  766.821
595.726  120.859  132.381
480.498  688.76  544.944
683.472  278.319  477.3
280.988  20.508  834.575
393.677  281.398  854.947
73.9196  450.687  859.862
436.388  396.888  552.124
201.602  275.651  639.737
537.557  533.808  525.757
295.794  745.928  61.5856
277.311  974.331  123.816
513.214  522.973  94.763
726.545  281.864  314.08
532.033  940.966  528.103
140.74  87.2945  255.756
524.343  743.467  531.532
229.755  212.142  918.451
64.6702  829.624  369.591
23.3832  672.097  534.104
268.94  169.87  937.449
224.974  671.133  24.7922
448.533  210.807  553.495
707.277  978.824  421.632
663.054  493.054  401.6
106.966  284.834  659.085
403.174  553.204  553.756
588.732  290.938  566.534
38.898  87.4828  172.354
25.093  503.055  301.385
399.799  363.151  77.6986
104.398  561.8  556.503
313.998  59.8722  596.195
196.998  217.586  908.908
145.414  905.8  97.1703
182.111  715.974  928.702
205.768  774.892  616.399
160.714  786.088  403.153
57.6894  213.797  627.914
94.2689  25.7493  543.169
32.0333  573.107  198.668
204.763  976.044  107.749
289.381  256.513  824.864
569.182  312.786  542.181
305.3  711.55  110.218
566.929  593.412  547.549
93.5982  356.697  370.834
248.385  244.052  851.312
127.189  284.406  709.471
29.8509  714.298  99.4267
17.0174  245.755  857.301
193.812  263.586  489.804
175.921  248.936  921.963
80.0571  625.625  725.85
130.965  907.121  432.314
52.2584  166.588  630.35
195.466  505.591  110.999
485.267  667.805  80.6676
136.68  547.214  618.69
192.593  378.853  931.168
691.88  261.038  173.673
193.509  540.302  278.979
664.154  412.078  399.398
41.0577  85.9076  871.322
399.442  799.883  43.3741
158.806  217.754  33.1139
201.4  131.876  404.96
32.5041  103.526  418.957
117.728  57.4684  640.091
214.384  418.61  195.656
31.6659  962.161  105.245
413.895  788.664  612.126
188.25  610.895  811.846
258.3  51.4875  768
357.521  297.148  648.685
206.007  751.784  566.618
317.941  299.492  933.312
20.3316  308.565  657.252
135.435  969.488  664.675
100.168  621.88  575.396
156.81  84.8307  941.093
35.9052  827.538  32.3336
384.871  291.233  675.191
334.596  874.016  99.0427
622.229  908.233  456.6
644.082  811.778  191.238
215.004  192.97  941.219
645.04  268.618  193.491
84.7511  857.696  837.26
170.247  28.1795  478.537
126.26  479.158  774.813
386.877  710.886  79.1018
212.062  34.422  103.626
296.019  54.6155  889.779
420.577  256.087  838.431
644.598  864.793  526.24
371.474  180.27  679.792
147.9  850.171  328.97
357.591  162.513  934.682
585.195  739.404  96.187
189.203  606.51  753.392
300.379  52.2105  819.588
645.951  770.814  197.676
362.864  716.408  547.074
160.865  781.428  346.447
557.134  398.111  548.426
726.724  753.68  281.833
524.209  640.833  96.1836
382.602  28.4697  547.39
421.215  129.725  897.574
512.505  848.122  591.038
155.653  148.787  919.195
678.693  675.697  207.21
33.3537  922.014  781.126
381.59  492.63  609.14
595.07  723.567  485.77
109.446  234.516  934.683
555.81  504.157  550.485
76.2207  38.9205  342.631
199.601  775.788  505.152
529.951  611.844  567.676
563.378  96.4498  522.514
181.738  892.174  930.564
27.9535  302.61  185.437
75.4383  823.756  878.955
366.184  54.2758  894.806
284.662  108.036  934.657
193.344  711.678  698.317
373.382  852.963  72.9712
347.834  593.711  540.35
366.483  407  86.5442
131.641  286.75  432.092
341.136  17.5385  729.211
232.506  737.863  155.253
596.827  534.463  137.164
231.142  360.638  184.04
304.708  84.5411  910.569
591.927  417.099  534.594
85.9992  36.8747  412.858
308.898  780.131  577.045
146.343  470.629  412.587
674.606  811.004  272.293
171.179  48.2899  692.415
364.795  901.438  79.4063
188.04  896.994  415.68
141.745  210.752  939.569
713.192  232.42  397.76
100.041  32.0371  479.8
184.729  921.258  641.608
192.733  98.5089  209.317
311.422  299.596  783.16
356.028  842.565  611.647
28.4967  115.429  37.0474
475.694  705.649  581.513
118.946  105.043  170.462
125.641  920.207  617.703
497.989  25.8839  548.572
25.5137  356.074  390.469
272.859  450.364  22.987
680.422  82.6677  159.325
84.6765  914.724  158.729
335.892  68.7746  30.9483
164.924  113.096  921.062
27.2508  250.558  732.602
454.185  73.9592  595.756
363.015  892.002  607.699
150.144  979.023  300.029
71.7375  44.786  893.297
205.806  122.828  888.231
566.372  642.175  581.361
25.8177  964.279  673.859
226.301  832.061  460.228
80.1908  460.975  437.32
215.162  728.252  210.03
187.371  417.258  550.117
220.597  169.104  641.724
177.552  21.4513  717.521
560.56  603.001  585.804
66.6811  236.633  939.738
19.4197  145.813  591.213
329.89  516.572  26.6222
26.3278  763.56  163.856
179.999  753.209  80.565
137.678  598.435  294.969
522.222  941.11  564.779
524.453  484.144  561.746
394.452  52.7974  753.319
315.334  761.868  105.854
194.918  970.981  497.982
169.878  300.002  686.977
433.824  98.5253  72.4737
414.772  179.391  553.836
205.029  306.414  562.758
584.363  171.87  65.4922
19.5934  78.865  635.138
296.317  16.6939  868.394
618.849  728.023  169.088
604.865  377.993  146.637
28.6271  81.9662  286.439
191.082  974.088  556.019
723.717  162.951  343.339
673.747  519.434  146.841
28.687  968.286  176.207
15.945  273.678  826.077
29.4668  696.12  768.087
24.1632  249.029  562.775
91.8585  93.3139  904.82
515.512  665.04  40.2794
190.357  93.3881  346.28
675.097  696.677  477.247
64.3259  176.659  932.522
159.626  370.916  560.759
130.84  537.699  869.924
302.226  662.821  515.72
233.071  212.538  884.745
714.393  324.403  393.964
689.343  622.547  452.191
290.913  299.647  861.507
252.791  523.997  482.311
28.4786  722.144  695.921
126.124  124.172  910.53
163.396  260.42  84.896
173.856  119.272  888.091
576.197  945.884  511.32
136.29  659.936  516.164
187.973  69.1391  855.727
305.948  278.724  897.681
70.0158  296.239  847.871
71.4265  966.897  874.263
418.62  56.8871  622.658
228.83  71.7947  719.884
722.98  23.8353  277.123
640.945  514.783  188.105
99.7858  74.6492  678.911
185.519  506.663  755.984
659.44  634.049  224.166
718.682  851.429  385.272
365.802  231.337  912.618
78.9675  412.774  666.611
605.144  864.105  475.746
552.558  930.685  587.264
490.997  950.629  544.536
355.817  285.644  745.588
112.27  110.519  884.676
199.774  726.448  26.2788
63.8595  19.307  833.056
417.679  48.9779  811.908
33.0634  154.27  178.293
194.609  545.835  365.306
370.88  25.6369  26.4786
660.253  509.526  240.953
398.764  263.291  776.053
678.363  608.761  149.275
143.838  352.615  31.8682
199.442  267.759  878.614
121.483  831.177  772.443
287.694  381.1  604.789
84.0738  640.265  650.473
56.2978  60.8139  593.36
243.454  300.129  685.06
470.894  938.242  577.189
203.439  301.482  791.127
114.06  144.384  936.525
227.107  19.8774  683.592
175.129  480.28  874.486
719.629  78.1025  255.441
425.504  546.106  19.1845
34.535  332.825  105.424
706.38  637.147  201.077
235.977  969.723  522.931
236.575  157.42  937.541
29.7045  853.205  215.818
649.499  906.823  410.409
722.91  236.304  274.298
52.0977  37.0073  865.518
36.7805  53.8682  890.816
116.703  723.327  272.651
197.08  599.445  265.297
26.7977  773.625  923.471
72.8054  663.299  534.813
23.1441  433.119  877.352
92.7154  970.656  929.173
36.2116  119.923  933.761
197.243  681.151  393.785
28.0062  789.797  685.153
562.292  738.101  50.3616
664.785  331.64  136.559
337.36  277.995  612.5
350.977  643.806  536.624
215.559  260.03  579.256
672.107  719.409  252.346
93.8819  146.554  676.71
140.039  434.434  817.195
192.212  634.958  867.832
217.246  273.346  758.512
640.144  495.758  439.223
448.722  949.531  25.2515
112.487  166.293  638.87
457.493  213.25  603.218
99.694  409.976  770.92
674.636  552.333  252.048
78.4725  565.332  843.88
142.04  186.994  910.783
229.294  239.101  634.273
226.459  554.484  118.741
276.801  98.492  605.942
645.689  695.493  172.508
311.119  96.7844  520.571
193.009  582.369  321.091
315.148  621.478  525.802
92.9047  360.777  661.417
110.192  912.017  554.551
480.541  877.507  606.476
294.001  899.077  109.414
681.156  483.03  483.585
339.923  127.942  918.257
315.149  347.031  522.426
615.465  252.794  544.071
364.418  297.66  906.989
140.923  105.209  395.315
192.857  512.485  920.234
636.913  566.654  433.597
30.2719  664.83  281.514
548.459  837.391  590.062
22.3564  258.567  613.547
437.093  582.735  560.548
185.867  869.253  626.505
693.047  246.722  444.349
89.237  750.057  599.101
30.966  506.584  444.597
560.294  664.343  516.108
320.882  450.278  527.735
41.8624  916.021  537.329
418.841  62.8819  843.808
268.259  230.31  24.2516
387.856  36.7696  712.903
55.3054  67.9822  727.899
380.346  75.0824  714.303
638.649  218.213  520.481
53.5581  291.012  686.693
79.8871  699.281  30.346
114.278  394.37  548.155
614.656  290.274  120.113
79.421  808.29  929.717
298.782  872.947  513.062
635.115  606.071  140.692
468.276  406.539  74.4014
270.431  632.121  28.2771
626.985  981.274  165.211
405.89  638.311  586.271
677.35  450.837  329.497
30.5704  494.474  29.2096
554.829  904.189  515.985
519.234  408.853  534.831
253.33  109.008  885.489
29.6984  333.006  32.9072
318.24  76.162  939.505
249.709  235.177  911.467
196.786  356.393  854.694
324.999  298.345  850.651
297.615  246.941  672.239
247.445  180  917.579
160.627  581.277  373.97
631.141  542.581  164.741
29.4409  28.2954  57.6524
467.279  620.974  46.6499
690.439  437.608  234.904
111.495  67.2688  576.546
164.53  198.547  887.997
574.013  797.636  503.263
202.529  55.191  671.175
177.85  604.491  423.096
123.056  236.978  671.591
275.433  131.772  129.391
657.941  650.077  411.875
14.1039  202.827  935.177
20.1443  376.469  757.818
49.465  114.094  622.286
110.768  49.4611  813.455
196.146  84.9429  709.945
697.131  889.296  190.675
375.237  644.263  18.8715
227.199  181.804  681.768
37.2536  52.9844  754.74
218.884  966.091  601.984
254.038  485.35  131.274
395.669  745.873  605.881
49.3025  261.872  820.303
580.306  502.093  89.0974
98.4028  109.729  682.334
216.436  200.139  482.573
416.812  18.4584  694.888
309.984  39.6506  850.798
724.016  561.451  355.866
185.446  877.78  686.357
677.561  977.181  336.627
82.2593  319.684  459.238
678.142  698.174  324.345
200.853  934.171  66.7283
262.816  732.488  21.3026
455.358  352.261  547.371
125.493  420.899  875.345
285.943  270.593  623.1
179.525  974.986  931.151
29.6503  346.643  936.272
352.513  141.8  628.082
209.848  227.99  871.905
724.227  67.1636  313.126
206.35  68.0099  496.309
360.463  127.043  28.3367
434.592  819.409  594.182
267.894  253.538  698.055
386.415  156.418  77.5938
219.949  116.177  100.434
80.0351  379.161  318.297
119.318  977.904  359.27
340.803  867.981  534.039
450.297  764.644  550.493
81.7689  696.663  832.429
302.199  183.861  588.108
603.944  74.065  78.5723
91.4041  370.84  599.785
464.338  607.801  547.79
184.103  712.011  253.405
186.87  823.835  672.879
182.597  437.785  665.13
581.056  810.554  573.373
519.83  614.316  31.4336
576.008  349.144  507.35
348.702  53.6066  938.336
53.3915  241.444  693.815
83.5352  747.704  472.576
523.634  70.6774  543.416
150.652  780.308  789.159
221.055  699.761  429.654
196.461  513.247  325.345
379.69  266.947  889.408
518.635  128.482  543.394
227.282  52.2598  635.574
304.916  312.296  97.4327
507.605  407.143  35.2559
52.2292  268.15  882.362
80.4506  347.111  201.079
271.066  266.842  797.826
100.507  892.244  29.9178
70.0514  318.221  933.846
85.9411  376.515  84.1659
189.492  432.13  492.491
141.162  750.636  489.541
105.091  133.297  549.026
288.352  18.8052  597.465
312.995  264.474  794.025
141.467  17.2077  837.788
32.3772  449.865  75.1062
32.5506  635.632  600.621
672.013  362.802  259.404
17.6024  334.949  797.04
189.689  457.933  722.148
467.838  800.697  28.4448
685.426  157.658  168.264
411.327  35.127  71.8913
300.692  27.171  710.293
389.905  781.942  578.497
294.521  67.9164  729.452
258.951  511.741  23.9623
553.142  200.895  579.809
354.175  68.3212  625.496
275.131  70.8656  940.591
201.789  340.451  236.172
668.391  295.817  443.912
385.142  132.124  893.823
27.7722  293.787  437.193
138.374  393.343  694.747
277.955  75.7223  35.3012
722.177  928.895  356.546
143.773  970.987  87.5073
539.151  326.097  523.639
291.282  229.311  940.244
661.061  165.723  406.342
181.903  494.457  690.899
538.552  829.156  43.6533
196.245  719.799  476.166
503.05  860.148  543.399
224.262  593.016  451.968
618.608  846.65  509.543
19.1021  205.052  648.802
556.38  96.626  103.126
30.3006  763.784  570.234
383.208  418.901  45.8393
74.8618  704.745  226.743
25.6868  434.77  642.109
174.097  613.486  154.284
143.677  153.817  514.107
698.769  935.988  446.763
248.016  413.106  487.934
360.78  310.919  577.96
20.0389  16.8655  679.919
253.979  478.91  474.908
394.554  342.593  603.809
708.105  26.3647  413.647
685.604  646.94  161.561
134.334  810.316  167.876
725.912  710.575  304.057
144.8  770.98  538.039
594.881  765.332  526.063
11.3312  211.758  886.82
648.65  24.5077  430.972
32.495  94.0564  480.254
539.251  81.4679  43.5606
665.014  20.6524  213.625
596.44  455.488  131.889
199.781  668.807  520.261
27.8739  484.4  511.323
71.3009  773.919  311.997
558.537  931.616  105.005
624.565  443.875  507.699
700.413  647.266  248.482
631.346  753.522  493.271
451.638  738.656  577.29
530.474  259.133  40.8111
269.201  849.796  600.412
149.396  103.197  560.179
416.619  300.215  691.424
91.6605  681.099  588.287
126.822  672.192  696.925
30.9228  627.583  862.016
423.129  226.399  873.916
594.083  708.909  135.679
31.4761  254.899  26.3085
560.404  577.632  515.365
344.707  521.305  581.207
23.6806  200.285  598.207
164.073  122.156  685.101
102.108  515.235  444.766
623.156  937.805  156.11
135.932  819.981  892.718
461.934  400.03  581.027
707.63  858.04  426.96
548.878  980.361  98.2534
393.265  121.995  921.264
362.282  431.026  543.451
253.361  461.462  559.639
191.752  341.883  595.299
349.031  77.0304  715.673
424.321  286.679  74.1113
695.494  973.172  184.288
247.795  129.443  571.075
116.685  584.821  148.304
554.325  655.402  76.2017
85.1237  510.981  622.023
332.147  140.517  680.563
594.845  614.198  560.302
269.549  903.776  498.531
166.44  210.04  509.013
160.768  33.1593  644.365
29.2932  667.929  31.6877
233.298  506.403  601.41
720.709  462.896  370.009
143.543  839.731  835.569
667.785  639.173  500.731
588.84  909.352  490.073
138.232  307.434  880.771
279.064  18.5549  937.342
660.138  231.801  216.872
149.03  356.491  616.252
39.1152  386.382  242.318
646.333  649.67  155.967
238.015  46.5167  788.445
173.677  380.138  94.142
406.983  903.674  582.074
243.723  685.263  468.477
422.003  160.992  648.534
307.503  786.411  21.4272
680.088  147.198  302.773
288.204  939.31  517.88
559.143  717.164  115.127
79.5089  235.638  351.638
83.0817  396.381  482.809
84.306  578.464  625.143
552.086  437.529  50.322
232.327  34.8731  41.0101
249.483  299.38  818.779
13.7699  99.3842  936.419
200.55  444.383  385.248
369.588  299.271  795.758
235.961  315.383  604.974
25.8193  228.644  914.226
701.749  686.014  423.441
296.592  533.333  70.0486
266.67  296.823  652.029
244.165  524.573  76.1826
593.156  705.767  62.7689
670.051  942.176  263.463
155.284  223.887  142.504
103.241  15.4696  732.467
370.273  12.8499  689.605
94.3851  269.515  538.16
303.964  15.7759  745.007
347.799  695.998  23.4343
275.393  298.481  739.219
588.098  304.878  499.486
682.863  829.742  406.082
149.576  175.999  678.443
179.333  18.482  913.162
62.3928  974.072  402.723
392.176  17.1695  786.835
562.426  359.081  546.349
176.436  722.492  523.124
194.748  525.735  26.2148
62.1786  106.498  918.106
560.37  193.306  524.12
191.102  373.679  501.924
29.5688  578.891  139.294
194.027  870.335  815.882
279.82  441.392  125.726
96.2971  575.121  921.773
129.377  286.37  499.531
281.448  42.2632  745.711
465.038  518.393  75.8188
182.917  979.146  246.585
162.017  304.707  737.622
716.158  812.109  384.695
321.871  430.456  57.7473
724.056  26.7683  350.31
384.378  287.53  24.1215
620.872  624.712  83.1758
510.494  67.4648  84.1668
30.0464  33.1013  127.305
421.172  203.035  939.048
668.15  273.131  241.172
411.486  73.8116  712.926
193.799  534.424  853.498
33.6416  181.167  367.723
678.759  888.537  302.751
549.527  440.754  525.615
388.014  63.5357  586.147
567.515  884.705  110.801
30.7216  606.183  663.374
199.177  94.6291  613.931
63.2619  407.004  363.113
140.545  52.313  827.781
18.4335  266.176  900.731
20.723  27.5646  619.533
322.742  261.182  646.974
726.836  470.787  326.58
417.102  831.566  69.5109
479.986  29.3476  600.172
91.9768  270.829  786.421
399.998  139.238  627.787
181.034  804.228  929.972
121.954  48.3895  776.228
534.383  607.47  528.429
31.2253  125.326  533.357
115.195  201.275  88.3447
679.542  27.9581  155.089
313.105  615.589  99.961
127.734  971.102  730.305
669.112  94.2236  242.752
716.365  195.752  243.368
416.85  300.398  783.368
34.5713  27.2819  508.034
27.3296  455.142  926.45
188.881  443.34  775.793
84.5787  180.97  303.367
78.2864  424.79  196.417
284.392  413.319  559.623
254.595  58.7851  735.581
362.004  232.286  710.763
529.091  450.759  569.042
658.065  945.946  510.66
715.657  76.4495  391.774
645.12  948.418  193.334
707.564  462.534  411.197
24.8608  904.419  722.518
175.113  519.606  523.933
326.847  458.352  98.5333
117.576  184.634  936.788
661.008  856.881  226.446
338.011  490.016  535.299
536.503  226.851  93.3889
97.3915  314.744  884.071
248.577  740.139  471.815
302.038  435.801  607.05
213.157  854.107  417.437
211.626  568.749  404.514
147.159  539.543  206.901
375.22  612.225  610.52
546.017  677.517  585.001
136.28  117.403  939.823
35.0936  900.478  29.9377
75.243  875.972  921.688
215.371  360.95  549.23
85.7645  144.305  126.497
80.319  749.856  920.363
431.912  549.798  607.427
146.254  36.0737  426.858
631.705  625.473  533.418
487.396  388.556  607.643
129.429  536.629  672.679
406.389  523.751  598.449
613.8  333.81  479.66
216.381  437.522  117.698
218.222  52.3246  760.845
235.399  440.923  451.252
24.6148  597.498  298.653
210.771  250.809  844.63
308.171  814.567  608.549
655.256  451.646  417.549
413.107  923.278  23.389
712.374  561.716  223.441
423.824  20.658  594.484
205.408  766.693  370.157
104.534  555.674  85.1405
347.929  254.212  886.905
675.559  572.411  307.213
503.929  844.564  79.921
239.923  300.112  771.353
621.825  624.519  174.089
570.43  409.816  119.646
460.54  385.658  23.0125
261.71  928.771  134.721
640.342  330.26  440.767
724.41  737.564  352.747
374.29  301.162  717.613
259.936  157.032  898.577
61.4465  210.328  910.001
79.5187  450.44  123.304
451.279  978.673  604.472
87.2141  14.2114  765.459
71.031  872.75  768.048
612.929  727.479  520.888
482.418  388.223  545.733
189.762  682.154  211.14
27.1575  273.489  367.992
535.286  681.575  100.285
192.662  331.148  770.182
75.6505  715.119  146.466
421.883  95.2383  694.122
270.256  47.1002  913.708
118.653  939.667  326.16
390.464  207.739  687.904
237.421  717.217  522.319
20.2182  249.231  938.512
621.468  726.498  85.685
121.314  510.494  723.66
478.564  566.703  543.314
487.837  901.832  579.726
576.921  725.398  535.351
542.661  792.801  580.73
681.323  925.708  159.37
99.0479  80.2245  871.507
523.824  366.31  533.301
152.723  933.38  382.988
350.425  93.6386  929.905
187.494  396.222  878.839
159.365  844.141  212.621
121.351  90.7629  27.4908
32.0817  703.692  589.365
117.627  322.855  843.311
183.478  29.4992  305.912
26.0294  819.451  317.451
329.47  867.921  19.6475
210.89  15.1941  831.302
419.256  94.3758  649.546
664.123  678.429  244.577
691.996  839.129  465.676
88.7875  160.598  936.689
253.577  860.233  482.385
661.494  112.468  400.803
151.648  259.891  690.224
17.7018  279.654  755.341
624.655  485.839  543.109
232.647  595.133  179.993
529.18  145.306  39.5934
406.884  169.963  681.054
151.401  278.572  776.918
208.006  294.715  685.154
320.375  632.645  609.443
676.014  194.978  358.372
193.73  847.201  921.208
129.384  604.805  695.379
364.729  14.3617  844.658
317.286  722.9  525.156
695.894  492.529  259.162
171.52  861.921  152.151
200.676  344.422  899.21
232.764  331.481  451.255
230.818  394.529  144.869
567.783  949.906  55.8848
551.941  393.54  43.6643
727.401  915.622  312.479
545.13  742.882  558.267
538.165  237.388  534.043
650.395  270.356  512.194
188.582  366.471  295.818
564.836  545.792  49.9073
566.218  621.866  511.649
209.381  665.854  603.816
80.7033  745.234  863.009
181.883  878.65  521.509
91.0781  17.4651  652.023
368.011  675.069  58.43
79.4575  263.748  190.155
120.968  263.635  763.8
322.19  725.669  571.569
301.461  240.022  718.569
633.832  867.049  439.982
379.308  888.425  27.0721
212.872  209.511  36.5438
184.617  672.436  65.2074
130.179  52.7277  742.018
604.908  863.72  109.585
146.162  488.971  197.258
397.964  402.482  550.569
165.201  124.758  609.48
398.715  976.739  23.1374
46.5694  484.714  670.027
590.431  576.398  488.395
197.488  245.424  272.884
448.642  167.377  602.179
46.1609  827.558  160.166
70.4158  91.2785  878.593
121.433  826.157  378.781
536.038  560.786  92.5441
187.138  132.927  289.221
191.269  464.567  926.942
70.4991  814.797  583.055
261.602  624.897  606.305
171.926  11.7379  809.042
108.668  855.767  134.221
467.011  681.918  42.8847
87.3781  615.205  33.0177
643.9  737.375  529.135
297.333  495.033  113.854
369.755  943.815  578.62
727.226  645.901  351.576
69.6613  347.598  847.889
265.235  84.6333  913.234
675.982  746.61  334.233
369.378  545.569  611.548
313.026  806.893  524.733
206.546  15.4498  732.154
322.805  527.009  527.575
133.874  641.495  765.066
229.077  881.959  148.228
193.658  702.337  864.822
365.106  297.735  938.811
193.181  931.198  912.495
25.3302  959.884  599.903
553.237  765.495  106.868
668.662  458.904  376.179
156.703  860.557  564.884
211.818  752.442  433.239
268.394  358.258  551.893
413.467  297.94  933.145
29.4861  782.169  865.956
252.949  15.5084  811.565
362.453  944.542  82.0437
672.822  33.5082  260.446
489.445  504.214  575.101
59.3753  295.309  805.241
671.617  443.327  142.918
28.2379  91.976  355.052
81.1276  607.439  452.879
146.925  704.224  103.476
357.277  268.133  833.843
38.7597  144.919  897.351
292.69  24.462  646.638
419.521  51.0678  777.179
25.863  255.034  661.366
471.46  465.266  580.921
152.86  282.575  644.203
291.342  272.204  937.468
181.628  193.752  295.015
120.456  269.629  899.286
67.4908  559.96  404.288
192.838  767.845  741.165
456.353  463.231  74.4431
428.52  388.621  55.3188
638.854  912.244  530
259.24  201.054  553.159
712.215  975.735  232.696
167.038  814.562  618.752
355.775  747.157  88.6777
141.126  642.936  117.763
29.2303  23.6613  567.971
671.188  155.994  257.383
194.646  672.465  341.306
131.518  880.917  374.965
219.303  976.756  418.109
576.071  864.697  59.5718
194.373  145.017  487.826
392.162  515.758  22.0023
200.352  506.828  240.259
611.523  23.2343  538.341
123.719  704.859  918.151
450.844  673.012  581.617
539.615  291.84  587.898
488.625  308.113  599.049
613.871  914.228  554.094
664.995  571.591  397.699
517.152  590.848  600.024
80.7385  22.4153  598.834
476.665  124.988  598.159
81.5172  341.803  516.442
133.243  758.626  435.047
137.622  51.5148  938.064
510.079  452.001  27.1409
73.3071  693.653  926.682
90.1916  203.364  933.658
699.05  323.556  443.129
81.6679  610.352  106.723
394.931  287.15  808.479
290.811  689.703  30.1047
703.149  103.896  199.617
177.115  383.317  172.808
208.334  821.956  194.524
651.221  861.71  114.621
432.48  632.794  551.483
130.131  98.6199  694.815
128.408  543.336  495.87
258.176  809.95  560.133
207.46  934.539  384.295
30.6075  183.233  33.4925
198.35  972.826  29.9354
23.8986  799.211  390.695
27.4202  443.133  818.536
119.152  29.6421  289.33
536.995  822.011  556.312
330.884  415.327  570.744
710.329  369.219  424.838
181.706  332.955  935.577
180.728  180.383  616.822
692.123  546.7  181.667
141.148  973.572  494.118
714.872  771.172  393.623
679.301  872.711  150.566
340.81  258.422  555.904
396.701  651.244  80.4377
29.295  318.43  605.673
356.21  184.625  642.419
193.478  17.8308  620.909
333.981  483.449  608.237
213.511  251.721  684.891
407.388  281.672  581.217
191.611  974.143  872.516
207.224  562.684  223.387
172.954  863.552  469.606
82.1617  235.712  657.975
509.701  446.704  538.912
192.055  50.264  939.196
408.014  583.781  603.242
208.181  464.804  25.8362
17.9079  284.06  705.537
29.9998  221.141  193.544
188.45  486.974  813.914
656.11  691.438  514.479
658.759  531.912  420.567
19.4918  16.9208  763.276
290.035  154.744  897.606
92.9946  970.492  264.565
528.228  734.311  87.688
183.917  654.788  466.518
389.007  842.973  22.8121
26.3672  663.098  345.724
527.835  701.259  539.168
208.904  140.346  681.959
115.236  86.2155  938.576
122.606  94.0806  99.629
65.6638  266.855  625.364
111.925  75.3284  723.606
600.776  982.76  552.376
239.353  366.198  598.964
20.2849  435.693  366.71
177.121  87.9498  60.0172
183.716  665.933  663.813
162.018  268.589  883.523
644.806  557.103  525.964
418.791  270.626  705.728
595.657  673.938  485.866
722.976  236.845  322.094
154.656  18.6582  783.371
187.578  921.74  791.898
177.42  232.071  874.208
85.7808  381.866  930.063
639.686  408.246  524.411
632.945  893.711  156.338
143.548  259.504  938.338
140.536  640.752  193.939
572.277  541.65  507.314
31.5347  258.221  136.85
128.204  16.4733  760.031
197.444  222.833  355.703
643.785  165.677  512.231
479.153  586.634  23.4558
24.3409  442.091  269.097
284.75  579.086  607.658
311.731  19.7111  903.908
49.0779  16.7827  649.311
638.09  781.223  530.093
476.034  73.0617  31.749
289.108  479.981  64.4708
396.062  241.346  902.457
114.631  17.3179  936.568
273.047  15.9141  897.592
383.466  596.037  81.7804
392.539  137.836  675.806
613.271  809.749  121.805
269.02  267.892  877.337
86.8348  367.165  27.7362
437.319  436.774  571.745
150.895  973.425  160.092
271.764  871.338  135.163
679.473  843.283  184.695
712.786  875.573  231.324
238.334  978.32  464.679
695.999  449.236  449.055
646.91  247.61  472.205
317.532  111.814  936.856
187.324  357.094  809.911
145.829  283.47  28.131
639.31  474.82  192.4
122.446  424.428  74.7999
362.247  197.58  935.463
288.815  280.713  36.207
326.972  978.623  25.7051
139.675  717.014  31.7807
264.205  781.715  604.943
168.114  639.309  566.411
391.323  80.0836  897.742
723.662  575.106  271.886
297.931  845.968  105.429
17.6192  223.254  698.902
140.742  676.432  616.634
127.656  479.274  119.693
420.738  18.2992  771.758
80.1707  849.315  83.7892
236.175  255.799  883.179
283.245  247.143  547.074
28.3618  653.115  720.897
220.659  467.152  518.031
145.623  612.163  73.052
317.022  402.346  524.585
230.196  924.949  182.892
313.212  292.157  579.351
81.7345  703.59  649.456
679.703  291.776  330.083
544.113  569.499  581.555
420.716  15.8977  814.173
476.665  258.571  75.1566
65.3866  139.783  916.967
56.5916  922.624  307.966
298.691  843.258  556.343
212.077  257.664  208.194
293.933  297.223  820.695
630.137  650.298  449.501
664.074  222.478  396.398
130  82.0968  328.41
264.492  344.549  130.802
220.504  605.56  585.702
370.803  571.856  577.69
616.646  979.478  506.872
335.083  223.99  659.594
690.352  372.578  389.192
637.177  513.28  117.816
624.584  767.406  453.484
148.912  460.224  534.734
189.029  555.19  791.633
364.797  178.849  542.725
59.1644  43.7989  684.964
142.492  98.8716  879.294
99.1008  233.41  897.235
255.321  785.828  86.317
335.32  575.775  77.7689
266.7  49.3574  812.98
267.752  265.673  909.345
332.562  64.1208  839.161
38.7392  529.06  872.224
28.5977  675.098  655.145
698.729  542.174  444.968
496.243  116.163  78.4816
616.781  700.882  551.145
418.671  274.505  906.87
514.009  935.621  34.4857
120.788  477.53  856.722
211.204  279.295  434.309
515.686  26.4335  36.5288
26.707  971.381  916.075
702.854  400.146  204.279
255.438  700.671  73.9017
187.415  287.367  836.045
58.2985  359.851  797.549
574.624  828.568  123.066
370.069  546.697  85.1836
54.9972  454.455  319.139
674.385  421.32  282.942
634.128  610.003  447.443
195.602  568.827  554.244
41.3338  603.59  919.629
581.827  839.923  537.181
193.886  480.917  633.722
183.601  439.043  441.25
371.949  34.757  664.137
277.251  693.939  557.854
158.796  320.869  844.778
523.841  642.938  598.799
527.28  467.246  87.9232
192.191  404.79  722.75
92.806  925.444  379.4
403.93  936.648  550.891
105.601  740.146  82.617
202.221  34.0607  856.359
153.691  511.469  71.1608
656.269  909.361  462.812
319.385  766.496  530.85
677.107  535.143  333.346
433.647  605.507  78.7333
263.595  281.444  578.307
119.271  204.208  890.328
589.238  517.617  534.01
680.43  937.184  312.64
467.403  309.27  73.8311
178.736  673.294  158.894
267.471  46.0872  869.833
153.985  214.883  697.311
643.081  808.546  433.337
378.535  218.753  638.85
395.666  190.433  926.598
197.979  805.18  72.1963
88.9598  671.271  87.9578
131.543  158.46  896.095
27.0208  827.532  834.035
495.887  296.63  31.9663
26.199  570.854  444.216
659.842  981.984  496.824
192.702  387.241  667.279
364.171  147.164  674.73
609.291  815.99  158.293
82.2114  257.88  414.315
54.3534  275.209  932.511
87.5187  63.6523  906.949
596.729  644.713  520.185
179.613  924.88  849.995
347.724  161.36  588.766
391.942  15.0413  869.244
677.002  255.114  291.799
209.219  562.158  61.2988
346.464  373.807  44.8101
673.877  863.472  491.045
306.178  576.171  518.017
158.283  870.132  766.259
669.803  881.988  386.418
297.154  390.436  24.0051
344.593  268.873  914.505
372.736  981.688  72.1519
142.523  731.145  723.225
502.243  776.445  544.703
626.858  411.902  166.066
451.195  501.057  35.7926
695.642  359.423  168.786
106.759  368.865  723.519
383.037  264.333  634.132
575.679  295.827  61.9861
150.457  566.865  253.942
677.366  897.919  345.866
556.756  26.3118  523.034
201.872  268.143  134.836
394.479  884.705  544.161
272.252  72.1216  496.798
573.366  246.948  59.5366
359.526  754.381  553.265
725.761  623.925  269.935
348.834  667.447  578.176
325.242  156.582  92.3117
99.7599  721.46  536.464
182.363  90.5398  901.843
489.226  505.507  24.6169
318.829  166.556  642.409
526.419  717.159  38.9525
167.092  164.208  893.081
26.4463  707.164  394.229
187.451  323.617  338.94
25.6652  389.675  310.21
170.335  186.695  399.961
190.073  767.796  841.546
376.614  514.597  548.937
725.583  784.797  352.886
575.7  243.602  568.251
347.733  947.701  535.123
469.816  716.5  72.058
673.575  759.279  373.71
24.592  843.085  918.945
328.244  146.635  940.109
306.523  121.955  569.632
275.772  897.683  561.637
120.37  831.921  31.6938
673.989  848.792  357.62
283.683  756.615  504.354
582.641  628.267  93.2197
190.65  424.81  287.58
375.403  21.5776  939.979
183.043  216.691  941.35
33.4227  753.655  634.734
340.331  71.6181  551.77
142.113  402.059  260.869
72.896  918.796  836.6
212.667  401.191  408.9
584.591  980.653  499.082
130.12  41.1088  860.781
14.9989  43.9444  867.172
262.447  173.405  593.61
14.9725  116.458  892.889
29.0656  706.124  876.884
333.073  56.5766  662.368
594.698  61.5161  497.572
238.282  288.453  723.596
269.603  284.505  127.497
241.631  275.464  622.455
417.605  150.212  25.1637
155.877  57.8935  882.068
559.162  703.609  515.672
88.8179  325.192  812.444
656.484  479.541  123.346
636.64  439.656  102.457
235.512  898.489  605.794
95.1621  790.516  819.668
83.7638  318.952  144.12
246.7  243.24  723.488
95.8975  96.3223  444.031
503.037  478.33  47.6715
649.417  517.896  516.154
620.435  823.729  546.401
670.319  404.525  327.072
135.936  648.598  840.871
16.5498  65.0521  843.754
183.362  878.199  874.742
233.765  179.52  890.939
659.853  616.178  191.404
86.9352  253.949  861.664
520.268  569.474  542.328
521.141  278.451  85.8174
667.68  321.847  244.897
459.799  253.133  575.607
646.608  267.42  423.461
125.231  21.4246  619.269
193.226  392.902  613.819
29.1361  898.373  878.212
164.184  409.669  27.7939
667.732  851.301  443.415
45.226  50.7551  813.356
418.375  250.581  737.145
712.149  646.517  417.636
641.178  942.369  427.345
431.065  624.881  613.005
86.4685  297.035  36.1514
652.167  67.6099  202.002
135.461  359.342  137.86
22.7524  961.742  354.428
221.007  124.974  939.682
202.39  343.731  416.311
44.5791  86.4196  939.512
126.772  900.301  813.055
642.753  399.358  430.461
87.4117  173.639  213.641
666.018  665.737  448.38
379.685  800.706  83.6084
486.514  746.007  607.59
310.259  297.755  646.618
151.305  45.6304  909.071
326.938  233.398  862.627
713.889  128.762  388.76
82.1763  452.435  797.786
114.64  43.1215  895.572
380.923  301.09  760.82
261.724  223.106  878.025
714.7  400.518  248.46
422.539  196.719  684.902
442.371  714.172  551.606
138.572  479.585  26.6402
184.038  842.25  281.059
30.5792  621.481  488.332
403.771  685.898  27.3152
471.739  657.032  607.646
197.93  945.341  285.36
226.08  13.417  877.87
644.294  346.538  526.451
511.193  169.393  83.0969
622.175  981.02  464.06
652.318  808.15  112.426
725.249  107.296  343.476
498.273  819.155  547.559
442.428  503.565  581.001
665.688  372.8  356.034
591.359  480.252  566.061
625.32  292.572  467.005
695.411  201.092  439.029
49.4701  237.853  523.727
528.446  518.628  33.231
298.713  824.072  56.0377
438.774  267.001  610.809
92.727  280.276  740.258
676.883  942.437  413.969
80.9358  172.22  440.698
154.668  150.854  106.939
267.999  676.336  605.268
69.2628  318.134  646.415
184.807  720.235  352.766
514.666  590.556  85.6629
611.406  385.281  549.417
476.028  906.275  26.2249
466.707  938.856  74.3068
42.8451  88.6091  702.045
609.84  265.23  152.633
24.9605  966.03  837.071
575.72  35.4121  568.582
677.81  88.9922  290.951
82.4805  971.152  201.209
655.094  637.455  115.654
699.942  367.241  341.509
295.388  17.2012  798.266
178.42  527.583  584.961
148.121  547.564  319.216
14.1045  16.09  835.374
256.199  978.023  70.4181
667.113  723.463  401.332
189.973  57.3644  619.608
355.529  557.236  27.8212
141.254  428.187  590.455
345.579  271.035  718.661
91.4336  971.359  126.895
721.971  273.646  364.955
503.239  819.568  29.7606
560.169  753.436  514.681
705.181  608.01  406.897
547.231  492.96  106.386
506.239  465.956  601.112
560.011  906.252  52.9219
93.6501  229.391  262.583
30.1305  849.865  689.833
79.6913  663.512  878.83
642.999  874.167  477.707
644.396  617.192  481.999
254.752  300.311  864.843
675.717  500.965  204.34
173.062  66.174  920.887
